-51.88380131 0.591268152 7.699926104
-48.50922599 0 7.518001207
-48.43237308 1.773804456 7.887968334
-43.01477903 0 7.202942197
-42.32448041 0 7.6416101
-42.29519863 0.591268152 7.302803415
-41.72451368 0 7.7866954
-40.17264832 0 7.485584153
-40.00866373 0 7.883893082
-39.95634861 1.773804456 7.616373366
-36.68386295 1.773804456 7.798067265
-35.82053074 216.9954118 7.00187247
-35.82053074 228.2295066 7.60564735
-35.22926259 241.237406 7.657195035
-35.1999808 1.182536304 7.476002073
-34.83320559 1.773804456 7.861755081
-34.63799443 251.2889646 7.921138528
-34.04672628 202.8049761 7.15808145
-33.45545813 1.773804456 7.092753471
-33.42617635 225.2731659 7.525794419
-32.86418998 261.3405232 7.181472757
-32.48616235 1.182536304 7.786703278
-32.27292183 188.6145405 7.291936963
-31.95371774 4.138877064 7.632973961
-31.78068415 1.773804456 7.816821771
-31.36244959 224.0906296 7.806767345
-31.13964145 1.773804456 7.907543564
-31.08732633 2.95634076 7.598819684
-31.06110374 203.3962443 7.110345603
-31.06110374 214.6303392 7.775892233
-31.06110374 236.5072608 7.525812507
-30.77118143 198.666099 7.396300935
-30.77118143 212.8565347 7.642609219
-30.49911737 176.1979093 7.217600958
-30.4904188 0.591268152 7.582956748
-30.46983559 189.7970768 7.912519688
-30.17991328 187.4320042 7.505908788
-29.87856744 176.7891774 7.958473538
-28.99737698 162.0074736 7.681319021
-28.99737698 173.8328367 7.387635209
-28.99737698 232.3683837 7.238785479
-28.93855344 202.213708 7.386047111
-28.93855344 214.039071 7.202944258
-28.92052407 203.9875124 7.217617409
-28.72531292 164.3725462 7.022856584
-28.69603113 163.7812781 7.563127073
-28.31387696 202.8049761 7.930176968
-28.31387696 213.4478028 7.241520104
-28.31387696 224.6818977 7.198111372
-28.23307523 212.8565347 7.279284301
-28.13098557 245.3762831 7.934354962
-27.81484067 9.460290431 7.724092458
-27.73798777 186.2494679 7.167132709
-27.72260881 236.5072608 7.230422731
-27.64180708 225.864434 7.817966029
-27.54277661 3.547608912 7.365074633
-27.54277661 147.817038 7.570362104
-27.53971742 234.7334563 7.908746369
-27.51349483 243.6024786 7.022854295
-27.22357252 146.0432335 7.706743116
-27.16474898 4.730145215 7.907549535
-27.16474898 225.864434 7.908749313
-27.14671961 7.095217823 7.61312388
-27.14671961 172.0590322 7.17842295
-27.14671961 214.6303392 7.930180881
-27.13134066 190.3883449 7.707542085
-27.05053893 199.2573672 7.724112137
-26.94280988 7.686485975 7.934347298
-26.92222668 1.773804456 7.915841161
-26.92222668 148.4083061 7.782330326
-26.63230437 132.444066 7.712063975
-26.57348083 186.840736 7.641620388
-26.45927078 153.1384514 7.255099604
-26.45927078 186.2494679 7.627261998
-26.45927078 201.0311717 7.786699461
-26.40949624 4.138877064 7.531898753
-26.40949624 235.3247245 7.712040113
-26.36024031 131.8527979 7.122525725
-26.36024031 266.6619365 7.006009873
-26.35718111 252.4715009 7.394411623
-26.35154173 215.2216073 7.908731538
-26.04103622 16.55550825 7.949047139
-26.04103622 118.2536304 7.958468619
-25.98221268 154.3209877 7.592327355
-25.98221268 170.2852278 7.799549764
-25.98221268 233.55092 7.817341524
-25.96418331 140.7218202 7.387639338
-25.94880436 177.3804456 7.908728963
-25.86800263 4.138877064 7.090154136
-25.86800263 63.85696041 7.767332862
-25.86800263 135.9916749 7.598817558
-25.86800263 167.328887 7.836853787
-25.81822809 190.9796131 7.828924075
-25.81822809 222.9080933 7.677305806
-25.76591296 219.9517525 7.888880339
-25.76027358 204.5787806 7.173312182
-25.76027358 228.2295066 7.605624839
-25.37291516 156.0947921 7.302807431
-25.37291516 225.2731659 7.493183004
-25.27673447 79.82120051 7.934336414
-25.22695993 247.7413557 7.669471529
-25.17464481 198.0748309 7.832416491
-25.16900543 238.2810652 7.568067943
-25.14842222 120.618703 7.712055766
-24.85849991 239.4636015 7.110346437
-24.68546632 49.07525661 7.505902548
-24.68546632 94.60290431 7.425680109
-24.63569178 88.69022279 7.926416751
-24.63569178 142.4956246 7.806763473
-24.63569178 157.8685966 7.386028364
-24.63569178 173.2415685 7.724101931
-24.58643585 9.460290431 7.524230377
-24.58337666 7.686485975 7.750304804
-24.58337666 260.749255 7.022833298
-24.55715407 133.6266023 7.298402046
-24.26723176 104.0631947 7.443829906
-24.20840822 14.19043565 7.767331632
-24.20840822 110.5671444 7.632966504
-24.20840822 124.7575801 7.379879278
-24.20840822 136.5829431 7.395680433
-24.19037885 26.60706684 7.712037291
-24.19037885 109.9758763 7.18148626
-24.19037885 126.5313845 7.076253325
-24.04442363 8.277754127 7.750294018
-24.04442363 125.9401164 7.938689691
-24.04442363 207.5351213 7.298406786
-23.9951677 18.32931271 7.798091094
-23.9951677 116.4798259 7.485585919
-23.99210851 147.817038 7.802321776
-23.99210851 183.2931271 7.677279629
-23.98646912 187.4320042 7.81796308
-23.96588592 5.321413367 7.816806082
-23.67596361 91.64656355 7.768681081
-23.61714007 44.34511139 7.054210961
-23.5991107 16.55550825 7.211385527
-23.5991107 54.39666998 7.961759527
-23.5991107 90.46402725 7.326029339
-23.58373175 157.8685966 7.447826378
-23.58373175 245.9675512 7.476003513
-23.50293002 122.3925074 7.735025097
-23.50293002 239.4636015 7.387886634
-23.41817667 0.141904356 7.782324002
-23.40389955 88.69022279 7.378309433
-23.39520097 165.5550825 7.598845941
-23.37461777 106.4282673 7.493167157
-23.08469546 27.19833499 7.976032346
-23.02587192 58.53554704 7.241518718
-23.02587192 94.01163616 7.902726607
-23.00784255 39.61496618 7.895889141
-23.00784255 69.17837378 7.873023384
-22.91166187 16.55550825 7.173336931
-22.91166187 31.33721205 7.945994871
-22.86188733 69.17837378 7.485578854
-22.86188733 105.8369992 7.47850653
-22.8126314 33.11101651 7.385443629
-22.8126314 72.72598269 7.544018277
-22.49342731 37.84116172 7.46989527
-22.49342731 53.21413367 7.121936814
-22.49342731 66.22203302 7.904322402
-22.43460376 70.36091008 7.926402565
-22.43460376 81.59500497 7.198108515
-22.40119544 139.5392839 7.469881688
-22.32039371 107.0195355 7.39628515
-22.27061917 18.92058086 7.87206904
-22.27061917 29.5634076 7.610706477
-22.27061917 47.30145215 7.587941023
-22.22136324 104.0631947 7.493188239
-22.21830405 133.0353342 7.82892487
-22.21830405 162.5987418 7.915845068
-22.21266467 17.14677641 7.428710822
-22.21266467 47.30145215 7.693216099
-22.21266467 65.63076486 7.930204268
-22.21266467 115.2972896 7.921117628
-22.21266467 129.4877253 7.913960209
-22.21266467 146.6345017 7.181469947
-22.19208146 91.0552954 7.425672201
-21.90215915 77.4561279 7.343570927
-21.84333561 27.19833499 7.774058552
-21.63009509 47.89272031 7.580318704
-21.63009509 60.3093515 7.570360619
-21.6270359 63.85696041 7.726904759
-21.6270359 98.15051322 7.399249045
-21.60081331 12.41663119 7.475985908
-21.25206746 238.2810652 7.396278015
-21.21865914 118.8448985 7.086250173
-21.08808287 255.4278416 7.485594678
-21.03012836 32.51974836 7.975868033
-21.03012836 84.55134573 7.828932995
-21.03012836 102.2893903 7.782340803
-21.03012836 242.4199423 7.926411136
-21.00954516 23.05945793 7.563135989
-20.64276994 230.5945793 7.904305207
-20.4444996 17.73804456 7.613116313
-20.4444996 78.63866421 7.531893769
-20.4444996 112.932217 7.9772915
-20.41827701 47.30145215 7.883897626
-20.41827701 59.12681519 7.888855601
-20.41827701 75.68232345 7.641613538
-20.01247211 7.804739606 7.12194349
-20.01247211 69.95884774 7.707529092
-20.01247211 101.4616149 7.51799311
-19.85629064 266.0706684 7.632990494
-19.85323144 31.9284802 7.734538053
-19.85323144 49.07525661 7.976039872
-19.2357407 34.29355281 7.076243867
-19.2357407 243.6024786 7.540927754
-19.16104597 50.37604654 7.570372251
-19.16104597 84.4330921 7.277576022
-18.35455024 243.6024786 7.279269622
-18.30961983 35.05037605 7.326030307
-18.18151665 244.1937467 7.598831953
-17.45819369 23.98183624 7.399240427
-17.07978208 245.9675512 7.54054601
-16.30868172 261.3405232 7.063338295
-15.71435438 263.7055958 7.706733607
-14.13882027 231.1858474 7.580318266
-13.93491054 243.0112104 7.005990579
-13.56558149 238.2810652 7.582956165
-12.76107281 252.4715009 7.913967226
-12.73179103 242.4199423 7.976038489
-12.44186872 243.0112104 7.887952022
-12.34963686 235.9159926 7.734540614
-12.21906059 258.9754505 7.015466403
-11.20050888 233.55092 7.613114487
-10.95798657 234.7334563 7.395662922
-9.903762524 244.1937467 7.821187318
-9.804732053 235.9159926 7.915835317
-9.801672861 263.1143276 7.930187095
-9.408675056 229.4120429 7.298429775
-8.894259812 237.6897971 7.915841244
-8.210759798 222.3168251 7.806787488
-8.030927598 219.3604844 7.657170906
-8.001645815 222.9080933 7.473848952
-7.061631814 219.9517525 7.592331429
-6.839692718 241.8286741 7.934334147
-6.529187204 228.8207748 7.063331244
-6.227841359 208.1263895 7.734543458
-5.66585499 206.9438532 7.945995885
-5.636573207 196.8922946 7.580295757
-5.3466509 216.4041436 7.585593019
-5.269797993 222.9080933 7.610695687
-5.269797993 215.2216073 7.298406823
-5.071527645 259.5667187 7.544006796
-5.045305055 182.7018589 7.505891962
-4.532574615 254.2453053 7.063348706
-4.483318686 189.7970768 7.540547814
-3.480614582 203.9875124 7.657184906
-3.399812853 241.237406 7.54863278
-3.300782382 172.6503004 7.977308397
-3.2715006 167.328887 7.774076039
-2.706455038 254.2453053 7.385463738
-2.39031014 195.7097583 7.121947171
-2.331486599 203.3962443 7.707543664
-2.313457233 203.3962443 7.46375963
-2.167502008 238.8723334 7.67729311
-2.118246078 157.2773284 7.394422883
-1.706810126 192.1621494 7.609534176
-1.518279351 235.3247245 7.609533311
-1.518279351 221.1342888 7.091832185
-1.130920929 180.3367863 7.887945636
-0.984965704 222.9080933 7.613107573
-0.935709774 143.0868928 7.158100766
-0.906427992 153.1384514 7.563121637
-0.616505685 181.5193226 7.97730936
-0.557682143 190.3883449 7.81734657
-0.539652777 192.7534175 7.887947326
0.033586009 171.4677641 7.230415183
0.051615375 167.328887 7.544009901
0.066994329 175.6066411 7.167128835
0.147796058 227.0469703 7.802326647
0.24682653 122.9837756 7.946002658
0.249885722 232.9596519 7.609540258
0.276108312 140.7218202 7.326049553
0.841153874 247.7413557 7.7269064
0.846793257 203.3962443 7.921112457
0.867376464 128.305189 7.774053337
1.249530633 160.2336692 7.173685213
1.330332362 206.352585 7.158102412
1.330332362 188.6145405 7.472699802
1.432422026 220.5430207 7.958489135
1.748566923 164.9638144 7.172002309
1.840798785 144.2694291 7.540531433
2.339835075 147.2257698 7.38546207
2.339835075 131.2615297 7.817338086
2.416687983 150.1821106 7.531901904
2.611899137 109.3846081 7.706728931
2.620597713 188.0232723 7.212533815
2.64118092 116.4798259 7.706753764
2.989926768 156.6860603 7.904301171
3.104136818 176.1979093 7.167115787
3.104136818 173.8328367 7.782347467
3.104136818 146.0432335 7.447827818
3.15391136 200.4399035 7.400010633
3.232449072 107.0195355 7.799554656
3.599224286 137.1742112 7.605631897
3.69540497 159.642401 7.181484195
3.797494634 198.0748309 7.400018908
4.113639531 114.7060215 7.81031832
4.205871393 126.5313845 7.387637105
4.205871393 109.3846081 7.100885148
4.336447664 180.3367863 7.836862765
4.388762786 183.8843953 7.786687948
4.394402169 169.6939596 7.609539236
4.78176059 124.7575801 7.949036965
4.98567032 156.6860603 7.798083805
5.354999376 141.3130883 7.230423892
5.354999376 128.305189 7.806782605
5.469209426 128.305189 7.7075323
5.568239897 93.42036801 7.387648544
5.597521679 91.64656355 7.66948452
6.060477578 116.4798259 7.641602064
6.110252119 157.2773284 7.774048904
6.168206624 133.0353342 7.921116068
6.478712139 95.19417246 7.525808556
6.570944001 92.2378317 7.757413503
6.701520271 135.9916749 7.063334226
6.701520271 122.3925074 7.888856568
6.753835393 148.9995743 7.902729435
6.780057983 78.04739606 7.566095672
7.128803832 116.4798259 7.038027172
7.146833198 112.3409489 7.54862828
7.345103545 163.1900099 7.570343568
8.311340136 99.92431768 7.076241524
8.344748456 78.63866421 7.872069184
8.344748456 66.81330117 7.00600099
8.524580657 75.68232345 7.902730116
8.533279232 118.2536304 7.217619944
9.066592879 108.79334 7.038043995
9.511905806 98.74178137 7.677286854
9.710176153 130.6702616 7.493168774
9.715815536 86.91641833 7.566083127
9.736398743 63.26569226 7.663374303
10.02632105 76.86485975 7.343578639
10.08514459 79.82120051 7.302797741
10.11855291 49.07525661 7.428692334
10.19935464 99.92431768 7.531902219
10.89835184 102.2893903 7.835109166
11.2676809 67.40456932 7.548641252
11.43166549 91.0552954 7.428692822
11.48398061 115.8885578 7.173322853
11.5102032 45.5276477 7.302821287
12.07524876 101.6981221 7.172020738
12.07524876 76.86485975 7.03802505
12.66345772 56.76174259 7.005989111
12.66651691 88.09895464 7.757404362
12.6927395 29.5634076 7.374803254
12.98266181 59.71808335 7.802335917
13.07489367 34.88482096 7.828937085
13.1556954 87.50768649 7.836883223
13.25778506 62.6744241 7.42869428
13.26342445 69.76964193 7.472602606
13.84599402 40.20623433 7.385438657
13.84599402 25.42453053 7.580303969
13.84905322 46.11891585 7.265090522
14.24205102 85.73388203 7.241543029
14.25742998 23.65072608 7.726927699
14.44596075 51.44032922 7.799530383
14.9792744 76.86485975 7.799539322
15.03158952 32.51974836 7.39442282
15.40655796 49.07525661 7.396277301
15.42458733 75.0910553 7.469881556
15.52076801 72.13471454 7.238770833
15.52076801 72.13471454 7.873027115
15.64908026 16.55550825 7.669488124
15.93900257 48.48398846 7.038030031
16.01585548 62.6744241 7.174446818
16.60712363 50.84906107 7.836857597
16.60712363 35.47608912 7.198104366
16.80233478 11.82536304 7.912506233
17.12153887 30.7459439 7.326026123
17.39666213 18.32931271 7.912510012
17.40230151 34.29355281 7.902710517
17.78965993 22.46818977 7.926398491
17.80503889 10.05155858 7.469509481
17.93561516 63.26569226 7.472961269
18.47710877 58.53554704 7.883897717
18.52688331 50.84906107 7.802317406
18.95416687 35.47608912 7.757415306
19.48661148 14.19043565 7.56609027
19.70941961 35.47608912 7.798068627
20.25091322 43.16257509 7.419125412
20.35864227 24.24199423 7.248067
20.72797133 23.05945793 7.425683341
20.74600069 9.460290431 7.912509712
20.89195592 21.87692162 7.525797983
21.53248 5.321413367 7.563114558
22.02471768 23.05945793 7.610696264
22.5351841 1.773804456 7.872063624
23.30934365 8.869022279 7.394434195
24.27558024 9.460290431 7.230415183
24.49751933 7.686485975 7.054204268
24.51810254 1.773804456 7.945996099
25.399293 5.321413367 7.022838234
26.16359474 11.82536304 7.913967123
26.21336929 11.82536304 7.469904669
26.65868221 4.730145215 7.566079974
28.63075701 3.547608912 7.764117707
29.7609782 5.321413367 7.888867794
30.77952991 3.547608912 7.171998918
30.99277043 1.773804456 7.907532438
31.99547453 0 7.411185849
35.03261702 1.773804456 7.07625835
35.14034607 1.773804456 7.750294231
36.11897264 0.591268152 7.279270432
36.34346558 0 7.198115357
37.81592419 1.182536304 7.425686048
39.27358375 0.591268152 7.173681151
39.64855219 1.773804456 7.97729015
42.17760939 1.773804456 7.657193628
43.22956942 0.591268152 7.904323017
43.4181002 1.182536304 7.592344529
44.98799492 0 7.505894235
45.77447423 0 7.76730568
46.26671191 0 7.110327559
49.70011077 1.182536304 7.16711855
50.53390123 0 7.610691245
50.82382353 0 7.724109562
50.9160554 0.591268152 7.63297026
51.09894679 0 7.096001701
53.41170427 1.773804456 7.054223983
55.24346323 1.182536304 7.947417385
58.58716242 1.182536304 7.054209797
58.6833431 0 7.121946033
73.4650469 1.773804456 7.582948651
