-9414.18261719 27551.46093750 -2.06523371 32 255 26 0.000000
-9412.63085938 27552.11718750 -2.06429958 32 255 26 0.000000
-9414.66308594 27551.27343750 -2.06246877 32 255 26 0.000000
-9413.70214844 27551.63476563 -2.06674266 32 255 26 0.000000
-9414.61816406 27551.26757813 -2.06937075 32 255 26 0.000000
-9414.13574219 27551.47656250 -2.06778574 32 255 26 0.000000
-9413.70703125 27551.66601563 -2.06439757 32 255 26 0.000000
-9412.81054688 27552.06250000 -2.06939197 32 255 26 0.000000
-9414.71972656 27551.25976563 -2.06230783 32 255 26 0.000000
-9412.86035156 27552.01171875 -2.06700730 32 255 26 0.000000
-9413.59960938 27551.74609375 -2.06032586 32 255 26 0.000000
-9414.27734375 27551.48437500 -2.06691933 32 255 26 0.000000
-9414.49023438 27551.37109375 -2.06923723 32 255 26 0.000000
-9414.08007813 27551.48437500 -2.06588483 32 255 26 0.000000
-9412.65136719 27552.12890625 -2.07535100 32 255 26 0.000000
-9414.53515625 27551.35937500 -2.06423402 32 255 26 0.000000
-9414.62890625 27551.32617188 -2.06791210 32 255 26 0.000000
-9413.77734375 27551.66210938 -2.06892943 32 255 26 0.000000
-9414.49414063 27551.32031250 -2.06809783 32 255 26 0.000000
-9413.25097656 27551.89257813 -2.06813955 32 255 26 0.000000
-9413.26171875 27551.92382813 -2.06769609 32 255 26 0.000000
-9412.64843750 27552.15429688 -2.07430220 32 255 26 0.000000
-9412.81738281 27552.09375000 -2.06824589 32 255 26 0.000000
-9414.58593750 27551.30859375 -2.05837059 32 255 26 0.000000
-9413.60449219 27551.77734375 -2.05793166 32 255 26 0.000000
-9413.12988281 27551.95117188 -2.05952787 32 255 26 0.000000
-9413.18457031 27551.87109375 -2.07127595 32 255 26 0.000000
-9412.79687500 27552.00195313 -2.07157421 32 255 26 0.000000
-9414.73535156 27551.28515625 -2.06960344 32 255 26 0.000000
-9413.58398438 27551.71289063 -2.06005383 32 255 26 0.000000
-9412.71191406 27552.13281250 -2.06473613 32 255 26 0.000000
-9412.70214844 27552.10156250 -2.06488991 32 255 26 0.000000
-9414.47949219 27551.40039063 -2.06299973 32 255 26 0.000000
-9412.65625000 27552.05664063 -2.07706523 32 255 26 0.000000
-9414.26855469 27551.50585938 -2.06201339 32 255 26 0.000000
-9414.47558594 27551.37109375 -2.06370974 32 255 26 0.000000
-9412.63671875 27552.14648438 -2.06323385 32 255 26 0.000000
-9413.78320313 27551.71875000 -2.06817245 32 255 26 0.000000
-9414.07714844 27551.50976563 -2.06324410 32 255 26 0.000000
-9413.18847656 27551.84960938 -2.07365441 32 255 26 0.000000
-9414.53710938 27551.38671875 -2.06244111 32 255 26 0.000000
-9414.61425781 27551.37890625 -2.05615687 32 255 26 0.000000
-9414.64257813 27551.38476563 -2.06733084 32 255 26 0.000000
-9412.86328125 27552.04101563 -2.06491590 32 255 26 0.000000
-9414.01660156 27551.53320313 -2.05958247 32 255 26 0.000000
-9414.08886719 27551.56640625 -2.06331944 32 255 26 0.000000
-9413.13476563 27551.90429688 -2.06688738 32 255 26 0.000000
-9414.72167969 27551.35351563 -2.06682634 32 255 26 0.000000
-9412.79980469 27552.03125000 -2.06954694 32 255 26 0.000000
-9412.87792969 27552.07421875 -2.06562114 32 255 26 0.000000
-9412.65429688 27552.18359375 -2.07695580 32 255 26 0.000000
-9414.47656250 27551.34570313 -2.06648445 32 255 26 0.000000
-9414.62402344 27551.29687500 -2.06866002 32 255 26 0.000000
-9413.19335938 27551.95312500 -2.07229924 32 255 26 0.000000
-9414.04199219 27551.60156250 -2.05791855 32 255 26 0.000000
-9413.77343750 27551.60937500 -2.07067299 32 255 26 0.000000
-9414.04492188 27551.57031250 -2.06212664 32 255 26 0.000000
-9411.79589844 27552.50195313 -2.07295609 32 255 26 0.000000
-9412.25292969 27552.24804688 -2.07223582 32 255 26 0.000000
-9410.96484375 27552.86914063 -2.06724596 32 255 26 0.000000
-9412.19628906 27552.31835938 -2.06833243 32 255 26 0.000000
-9411.78125000 27552.41601563 -2.07482123 32 255 26 0.000000
-9412.14453125 27552.36328125 -2.06845236 32 255 26 0.000000
-9411.38378906 27552.69140625 -2.06479883 32 255 26 0.000000
-9411.90917969 27552.40039063 -2.06383276 32 255 26 0.000000
-9410.80273438 27552.87890625 -2.06999493 32 255 26 0.000000
-9412.62792969 27552.08789063 -2.06629682 32 255 26 0.000000
-9412.64355469 27552.17773438 -2.06212878 32 255 26 0.000000
-9412.82714844 27552.12500000 -2.06800771 32 255 26 0.000000
-9411.72851563 27552.48828125 -2.06254077 32 255 26 0.000000
-9411.94042969 27552.47070313 -2.06235385 32 255 26 0.000000
-9411.83691406 27552.45703125 -2.07035971 32 255 26 0.000000
-9411.68554688 27552.52734375 -2.07255816 32 255 26 0.000000
-9412.14941406 27552.30273438 -2.07799578 32 255 26 0.000000
-9410.88476563 27552.78906250 -2.07728243 32 255 26 0.000000
-9412.26171875 27552.27929688 -2.07239795 32 255 26 0.000000
-9412.69140625 27552.07031250 -2.06500340 32 255 26 0.000000
-9411.88183594 27552.41406250 -2.06945157 32 255 26 0.000000
-9412.65625000 27552.08203125 -2.07736182 32 255 26 0.000000
-9410.94921875 27552.83398438 -2.06706452 32 255 26 0.000000
-9412.29394531 27552.25195313 -2.06360078 32 255 26 0.000000
-9412.58984375 27552.08789063 -2.07610750 32 255 26 0.000000
-9412.19433594 27552.29101563 -2.07018924 32 255 26 0.000000
-9411.45507813 27552.66210938 -2.06091142 32 255 26 0.000000
-9412.11425781 27552.27929688 -2.06412959 32 255 26 0.000000
-9411.82031250 27552.39648438 -2.06951928 32 255 26 0.000000
-9412.64257813 27552.09570313 -2.07135773 32 255 26 0.000000
-9411.90332031 27552.41406250 -2.07809615 32 255 26 0.000000
-9412.63085938 27552.11718750 -2.06429958 32 255 26 0.000000
-9412.14160156 27552.34765625 -2.07632160 32 255 26 0.000000
-9412.15722656 27552.25781250 -2.07955956 32 255 26 0.000000
-9412.29882813 27552.22656250 -2.06748581 32 255 26 0.000000
-9410.85449219 27552.79101563 -2.07041717 32 255 26 0.000000
-9411.83496094 27552.48242188 -2.06756806 32 255 26 0.000000
-9412.19238281 27552.26171875 -2.07201242 32 255 26 0.000000
-9411.19042969 27552.66992188 -2.06742263 32 255 26 0.000000
-9411.89550781 27552.47265625 -2.06907320 32 255 26 0.000000
-9412.13964844 27552.32031250 -2.07456923 32 255 26 0.000000
-9411.67187500 27552.44140625 -2.07418156 32 255 26 0.000000
-9411.89160156 27552.48242188 -2.07706761 32 255 26 0.000000
-9412.24316406 27552.21679688 -2.07203484 32 255 26 0.000000
-9411.69335938 27552.55664063 -2.07300949 32 255 26 0.000000
-9411.88378906 27552.38671875 -2.07220745 32 255 26 0.000000
-9411.79980469 27552.53125000 -2.07225919 32 255 26 0.000000
-9411.18750000 27552.65625000 -2.07847977 32 255 26 0.000000
-9412.38964844 27552.25195313 -2.07450008 32 255 26 0.000000
-9411.29296875 27552.68164063 -2.06766391 32 255 26 0.000000
-9410.80566406 27552.85156250 -2.07413030 32 255 26 0.000000
-9412.81054688 27552.06250000 -2.06939197 32 255 26 0.000000
-9411.36718750 27552.65625000 -2.06485105 32 255 26 0.000000
-9410.89160156 27552.76757813 -2.08088636 32 255 26 0.000000
-9412.65136719 27552.12890625 -2.07535100 32 255 26 0.000000
-9410.86914063 27552.82617188 -2.07075500 32 255 26 0.000000
-9411.94140625 27552.45507813 -2.06539726 32 255 26 0.000000
-9411.28027344 27552.64843750 -2.06846070 32 255 26 0.000000
-9412.15332031 27552.27929688 -2.07879186 32 255 26 0.000000
-9411.19531250 27552.70312500 -2.06496549 32 255 26 0.000000
-9410.89550781 27552.89843750 -2.07651019 32 255 26 0.000000
-9410.92871094 27552.76953125 -2.06919646 32 255 26 0.000000
-9410.89062500 27552.81835938 -2.07830548 32 255 26 0.000000
-9410.89355469 27552.84570313 -2.07812762 32 255 26 0.000000
-9412.20996094 27552.34960938 -2.06947279 32 255 26 0.000000
-9411.68359375 27552.47265625 -2.07582974 32 255 26 0.000000
-9411.82519531 27552.46289063 -2.06316805 32 255 26 0.000000
-9412.64843750 27552.15429688 -2.07430220 32 255 26 0.000000
-9412.32421875 27552.31835938 -2.06671762 32 255 26 0.000000
-9412.81738281 27552.09375000 -2.06824589 32 255 26 0.000000
-9411.88378906 27552.43945313 -2.06771231 32 255 26 0.000000
-9412.29980469 27552.28125000 -2.06268978 32 255 26 0.000000
-9410.87792969 27552.88671875 -2.06596994 32 255 26 0.000000
-9411.91992188 27552.43554688 -2.06191945 32 255 26 0.000000
-9412.79687500 27552.00195313 -2.07157421 32 255 26 0.000000
-9412.26562500 27552.33593750 -2.06857347 32 255 26 0.000000
-9411.31250000 27552.71875000 -2.06851721 32 255 26 0.000000
-9412.71191406 27552.13281250 -2.06473613 32 255 26 0.000000
-9412.14355469 27552.31835938 -2.06610703 32 255 26 0.000000
-9412.25976563 27552.30468750 -2.06949615 32 255 26 0.000000
-9412.70214844 27552.10156250 -2.06488991 32 255 26 0.000000
-9411.18750000 27552.68164063 -2.07707429 32 255 26 0.000000
-9412.65625000 27552.05664063 -2.07706523 32 255 26 0.000000
-9411.68847656 27552.50195313 -2.07528138 32 255 26 0.000000
-9412.38769531 27552.22460938 -2.07289314 32 255 26 0.000000
-9411.72753906 27552.48242188 -2.07000971 32 255 26 0.000000
-9411.20703125 27552.73632813 -2.06418443 32 255 26 0.000000
-9412.63671875 27552.14648438 -2.06323385 32 255 26 0.000000
-9410.93652344 27552.80078125 -2.06771135 32 255 26 0.000000
-9412.12597656 27552.30273438 -2.06804633 32 255 26 0.000000
-9412.58886719 27552.11523438 -2.07317734 32 255 26 0.000000
-9412.38183594 27552.29882813 -2.07252216 32 255 26 0.000000
-9411.77539063 27552.43945313 -2.07105064 32 255 26 0.000000
-9411.36132813 27552.59179688 -2.07073760 32 255 26 0.000000
-9410.87402344 27552.85742188 -2.06838012 32 255 26 0.000000
-9412.86328125 27552.04101563 -2.06491590 32 255 26 0.000000
-9411.90332031 27552.38476563 -2.07616568 32 255 26 0.000000
-9410.79003906 27552.81640625 -2.07374167 32 255 26 0.000000
-9412.58886719 27552.14257813 -2.07021594 32 255 26 0.000000
-9412.18261719 27552.23242188 -2.07176161 32 255 26 0.000000
-9411.71875000 27552.45507813 -2.06435609 32 255 26 0.000000
-9411.83984375 27552.51171875 -2.06684136 32 255 26 0.000000
-9410.89257813 27552.87109375 -2.07675982 32 255 26 0.000000
-9412.79980469 27552.03125000 -2.06954694 32 255 26 0.000000
-9412.65429688 27552.18359375 -2.07695580 32 255 26 0.000000
-9411.35449219 27552.62109375 -2.06569791 32 255 26 0.000000
-9412.33203125 27552.21875000 -2.06586027 32 255 26 0.000000
-9411.82910156 27552.42773438 -2.06996107 32 255 26 0.000000
-9411.89355469 27552.42968750 -2.07469702 32 255 26 0.000000
-9411.74902344 27552.52539063 -2.06312323 32 255 26 0.000000
-9411.44140625 27552.59765625 -2.06525755 32 255 26 0.000000
-9411.79101563 27552.47460938 -2.07361364 32 255 26 0.000000
-9412.38281250 27552.27343750 -2.07225585 32 255 26 0.000000
-9412.13574219 27552.27929688 -2.07290626 32 255 26 0.000000
-9410.81835938 27552.91210938 -2.07029414 32 255 26 0.000000
-9412.13867188 27552.33398438 -2.06929111 32 255 26 0.000000
-9412.34179688 27552.25390625 -2.06380892 32 255 26 0.000000
-9409.98437500 27553.14062500 -2.07373142 32 255 26 0.000000
-9409.62109375 27553.35546875 -2.07612014 32 255 26 0.000000
-9410.33203125 27553.06054688 -2.06349158 32 255 26 0.000000
-9410.00976563 27553.25976563 -2.06932664 32 255 26 0.000000
-9409.06738281 27553.58203125 -2.08295393 32 255 26 0.000000
-9409.06933594 27553.63671875 -2.07948303 32 255 26 0.000000
-9409.96191406 27553.22851563 -2.07925320 32 255 26 0.000000
-9410.96484375 27552.86914063 -2.06724596 32 255 26 0.000000
-9408.92285156 27553.59765625 -2.08071780 32 255 26 0.000000
-9409.98535156 27553.29296875 -2.07993269 32 255 26 0.000000
-9410.36328125 27553.00390625 -2.08055258 32 255 26 0.000000
-9409.56347656 27553.34570313 -2.08451176 32 255 26 0.000000
-9409.49804688 27553.35742188 -2.07721496 32 255 26 0.000000
-9409.96386719 27553.25781250 -2.07717705 32 255 26 0.000000
-9409.56445313 27553.37500000 -2.08630824 32 255 26 0.000000
-9410.48339844 27552.98632813 -2.07161641 32 255 26 0.000000
-9409.81347656 27553.22460938 -2.07583380 32 255 26 0.000000
-9410.80273438 27552.87890625 -2.06999493 32 255 26 0.000000
-9410.40136719 27553.00390625 -2.06920481 32 255 26 0.000000
-9410.35156250 27553.02929688 -2.07463503 32 255 26 0.000000
-9410.38085938 27553.09570313 -2.07584405 32 255 26 0.000000
-9408.97656250 27553.61523438 -2.07887983 32 255 26 0.000000
-9409.06347656 27553.55468750 -2.08356190 32 255 26 0.000000
-9409.55664063 27553.31445313 -2.07942605 32 255 26 0.000000
-9410.06445313 27553.17382813 -2.08193755 32 255 26 0.000000
-9409.56347656 27553.39648438 -2.07378840 32 255 26 0.000000
-9409.56445313 27553.37109375 -2.07671976 32 255 26 0.000000
-9409.41308594 27553.44921875 -2.08149576 32 255 26 0.000000
-9409.63183594 27553.41601563 -2.07420588 32 255 26 0.000000
-9410.49511719 27553.01953125 -2.07121229 32 255 26 0.000000
-9409.16113281 27553.57812500 -2.07668948 32 255 26 0.000000
-9409.61523438 27553.32617188 -2.07702041 32 255 26 0.000000
-9409.51367188 27553.44335938 -2.07464409 32 255 26 0.000000
-9409.95214844 27553.19726563 -2.07933283 32 255 26 0.000000
-9410.88476563 27552.78906250 -2.07728243 32 255 26 0.000000
-9410.33300781 27553.00976563 -2.06451082 32 255 26 0.000000
-9410.29785156 27553.10937500 -2.07291222 32 255 26 0.000000
-9409.99707031 27553.20117188 -2.07160783 32 255 26 0.000000
-9410.94921875 27552.83398438 -2.06706452 32 255 26 0.000000
-9409.51367188 27553.39062500 -2.07947326 32 255 26 0.000000
-9409.95312500 27553.16992188 -2.08232164 32 255 26 0.000000
-9409.99023438 27553.16992188 -2.07268906 32 255 26 0.000000
-9409.55859375 27553.34179688 -2.07758021 32 255 26 0.000000
-9410.06738281 27553.15039063 -2.08294344 32 255 26 0.000000
-9409.56054688 27553.39648438 -2.08546782 32 255 26 0.000000
-9410.85449219 27552.79101563 -2.07041717 32 255 26 0.000000
-9409.42089844 27553.48046875 -2.08170223 32 255 26 0.000000
-9410.37597656 27553.12304688 -2.07171273 32 255 26 0.000000
-9410.04785156 27553.15039063 -2.06972265 32 255 26 0.000000
-9409.89550781 27553.29882813 -2.07339239 32 255 26 0.000000
-9409.87597656 27553.23632813 -2.07355475 32 255 26 0.000000
-9409.51562500 27553.41796875 -2.07758617 32 255 26 0.000000
-9409.55957031 27553.42187500 -2.08589172 32 255 26 0.000000
-9410.06738281 27553.20312500 -2.08340120 32 255 26 0.000000
-9409.56542969 27553.29687500 -2.08341932 32 255 26 0.000000
-9409.45605469 27553.42968750 -2.07653308 32 255 26 0.000000
-9410.80566406 27552.85156250 -2.07413030 32 255 26 0.000000
-9408.93945313 27553.68554688 -2.08006144 32 255 26 0.000000
-9410.34375000 27553.14648438 -2.06712818 32 255 26 0.000000
-9409.87011719 27553.20703125 -2.07455754 32 255 26 0.000000
-9410.48046875 27552.95703125 -2.07382965 32 255 26 0.000000
-9409.56738281 27553.32421875 -2.08529115 32 255 26 0.000000
-9410.89160156 27552.76757813 -2.08088636 32 255 26 0.000000
-9410.86914063 27552.82617188 -2.07075500 32 255 26 0.000000
-9409.81250000 27553.25000000 -2.07288337 32 255 26 0.000000
-9409.05468750 27553.52539063 -2.08305359 32 255 26 0.000000
-9408.91992188 27553.62304688 -2.07800150 32 255 26 0.000000
-9410.33496094 27552.98632813 -2.06558228 32 255 26 0.000000
-9410.89550781 27552.89843750 -2.07651019 32 255 26 0.000000
-9410.92871094 27552.76953125 -2.06919646 32 255 26 0.000000
-9410.89062500 27552.81835938 -2.07830548 32 255 26 0.000000
-9410.89355469 27552.84570313 -2.07812762 32 255 26 0.000000
-9410.42968750 27553.07031250 -2.07032561 32 255 26 0.000000
-9409.07128906 27553.61132813 -2.08230639 32 255 26 0.000000
-9409.44140625 27553.37109375 -2.07710147 32 255 26 0.000000
-9410.33691406 27553.11523438 -2.06475282 32 255 26 0.000000
-9410.05761719 27553.18164063 -2.06956816 32 255 26 0.000000
-9410.42382813 27553.03906250 -2.07164788 32 255 26 0.000000
-9410.87792969 27552.88671875 -2.06596994 32 255 26 0.000000
-9409.44335938 27553.39843750 -2.07528973 32 255 26 0.000000
-9409.16015625 27553.55078125 -2.07846212 32 255 26 0.000000
-9409.40722656 27553.42187500 -2.08228469 32 255 26 0.000000
-9410.06933594 27553.12695313 -2.08391833 32 255 26 0.000000
-9409.62597656 27553.38476563 -2.07518196 32 255 26 0.000000
-9410.29492188 27553.07812500 -2.07509685 32 255 26 0.000000
-9410.36230469 27553.06054688 -2.07432747 32 255 26 0.000000
-9409.39843750 27553.39062500 -2.08199334 32 255 26 0.000000
-9410.06445313 27553.22656250 -2.08233309 32 255 26 0.000000
-9410.93652344 27552.80078125 -2.06771135 32 255 26 0.000000
-9409.57128906 27553.42773438 -2.07386994 32 255 26 0.000000
-9408.92480469 27553.65234375 -2.07742834 32 255 26 0.000000
-9409.88574219 27553.26757813 -2.07349658 32 255 26 0.000000
-9410.87402344 27552.85742188 -2.06838012 32 255 26 0.000000
-9410.00683594 27553.23242188 -2.07145691 32 255 26 0.000000
-9410.79003906 27552.81640625 -2.07374167 32 255 26 0.000000
-9410.89257813 27552.87109375 -2.07675982 32 255 26 0.000000
-9410.06738281 27553.21289063 -2.06936908 32 255 26 0.000000
-9410.33984375 27553.09179688 -2.06595349 32 255 26 0.000000
-9410.28417969 27553.04687500 -2.07535529 32 255 26 0.000000
-9409.15625000 27553.52148438 -2.07913756 32 255 26 0.000000
-9409.55761719 27553.44726563 -2.08628654 32 255 26 0.000000
-9409.81250000 27553.25195313 -2.08418989 32 255 26 0.000000
-9409.81250000 27553.22656250 -2.08378363 32 255 26 0.000000
-9409.81640625 27553.20312500 -2.08463073 32 255 26 0.000000
-9410.50585938 27553.05078125 -2.07076430 32 255 26 0.000000
-9410.40429688 27552.97656250 -2.07324433 32 255 26 0.000000
-9410.81835938 27552.91210938 -2.07029414 32 255 26 0.000000
-9409.42675781 27553.50976563 -2.08083391 32 255 26 0.000000
-9409.06738281 27553.58203125 -2.08295393 32 255 26 0.000000
-9407.73144531 27554.22460938 -2.07322478 32 255 26 0.000000
-9407.20898438 27554.28320313 -2.09193039 32 255 26 0.000000
-9409.06933594 27553.63671875 -2.07948303 32 255 26 0.000000
-9408.92285156 27553.59765625 -2.08071780 32 255 26 0.000000
-9407.24316406 27554.27343750 -2.08268952 32 255 26 0.000000
-9407.26562500 27554.36718750 -2.07886887 32 255 26 0.000000
-9407.58886719 27554.19335938 -2.08057404 32 255 26 0.000000
-9408.56738281 27553.75781250 -2.08297253 32 255 26 0.000000
-9407.75097656 27554.17773438 -2.07573009 32 255 26 0.000000
-9407.60839844 27554.22656250 -2.08201694 32 255 26 0.000000
-9407.73828125 27554.14453125 -2.07638788 32 255 26 0.000000
-9407.57617188 27554.16015625 -2.08108497 32 255 26 0.000000
-9407.25097656 27554.30468750 -2.08145547 32 255 26 0.000000
-9408.97656250 27553.61523438 -2.07887983 32 255 26 0.000000
-9409.06347656 27553.55468750 -2.08356190 32 255 26 0.000000
-9409.14062500 27553.48828125 -2.07657623 32 255 26 0.000000
-9409.16113281 27553.57812500 -2.07668948 32 255 26 0.000000
-9407.25097656 27554.33398438 -2.07836866 32 255 26 0.000000
-9407.98144531 27554.04101563 -2.07546496 32 255 26 0.000000
-9407.99121094 27553.99804688 -2.08759427 32 255 26 0.000000
-9407.97265625 27554.00781250 -2.07703209 32 255 26 0.000000
-9407.72656250 27554.16796875 -2.07219696 32 255 26 0.000000
-9408.10351563 27553.95898438 -2.08034396 32 255 26 0.000000
-9408.57714844 27553.71289063 -2.08928609 32 255 26 0.000000
-9407.20214844 27554.35351563 -2.09035134 32 255 26 0.000000
-9408.57421875 27553.73632813 -2.08670688 32 255 26 0.000000
-9408.57324219 27553.81445313 -2.08218980 32 255 26 0.000000
-9407.99023438 27554.02343750 -2.08632278 32 255 26 0.000000
-9407.71679688 27554.05859375 -2.06967115 32 255 26 0.000000
-9407.98925781 27553.97265625 -2.08763671 32 255 26 0.000000
-9408.93945313 27553.68554688 -2.08006144 32 255 26 0.000000
-9407.72265625 27554.11132813 -2.07613230 32 255 26 0.000000
-9407.20800781 27554.30859375 -2.09228897 32 255 26 0.000000
-9407.57519531 27554.12890625 -2.08420277 32 255 26 0.000000
-9409.05468750 27553.52539063 -2.08305359 32 255 26 0.000000
-9408.91992188 27553.62304688 -2.07800150 32 255 26 0.000000
-9407.72167969 27554.08789063 -2.07096887 32 255 26 0.000000
-9409.07128906 27553.61132813 -2.08230639 32 255 26 0.000000
-9407.71093750 27554.13085938 -2.06617737 32 255 26 0.000000
-9407.20410156 27554.38281250 -2.09188294 32 255 26 0.000000
-9407.13085938 27554.35156250 -2.08897448 32 255 26 0.000000
-9409.16015625 27553.55078125 -2.07846212 32 255 26 0.000000
-9407.21484375 27554.26171875 -2.09411335 32 255 26 0.000000
-9407.72167969 27554.11328125 -2.07101274 32 255 26 0.000000
-9407.13769531 27554.38281250 -2.08777070 32 255 26 0.000000
-9407.14843750 27554.41601563 -2.08744788 32 255 26 0.000000
-9407.20800781 27554.33398438 -2.09261298 32 255 26 0.000000
-9407.71386719 27554.07812500 -2.07756257 32 255 26 0.000000
-9408.64648438 27553.69335938 -2.07505584 32 255 26 0.000000
-9408.92480469 27553.65234375 -2.07742834 32 255 26 0.000000
-9407.73046875 27554.19726563 -2.07333255 32 255 26 0.000000
-9408.57128906 27553.78515625 -2.08259821 32 255 26 0.000000
-9408.67871094 27553.76367188 -2.07383037 32 255 26 0.000000
-9407.10156250 27554.40039063 -2.08079410 32 255 26 0.000000
-9407.19433594 27554.40039063 -2.08830094 32 255 26 0.000000
-9409.15625000 27553.52148438 -2.07913756 32 255 26 0.000000
-9408.66503906 27553.72851563 -2.07486200 32 255 26 0.000000
-9408.57324219 27553.83984375 -2.08062172 32 255 26 0.000000
-9406.77148438 27554.58984375 -2.08322120 32 255 26 0.000000
-9407.20898438 27554.28320313 -2.09193039 32 255 26 0.000000
-9407.24316406 27554.27343750 -2.08268952 32 255 26 0.000000
-9406.70605469 27554.60742188 -2.08442163 32 255 26 0.000000
-9407.26562500 27554.36718750 -2.07886887 32 255 26 0.000000
-9405.76953125 27554.85937500 -2.08699012 32 255 26 0.000000
-9406.69042969 27554.49023438 -2.09140587 32 255 26 0.000000
-9406.18847656 27554.72851563 -2.08317637 32 255 26 0.000000
-9405.66992188 27554.93945313 -2.08599687 32 255 26 0.000000
-9406.70019531 27554.55078125 -2.08846641 32 255 26 0.000000
-9406.70703125 27554.57812500 -2.08766937 32 255 26 0.000000
-9406.71582031 27554.48632813 -2.09037948 32 255 26 0.000000
-9405.72753906 27554.95507813 -2.08451867 32 255 26 0.000000
-9405.84375000 27554.90820313 -2.08766341 32 255 26 0.000000
-9405.93261719 27554.84570313 -2.09206939 32 255 26 0.000000
-9405.67382813 27554.88867188 -2.09128594 32 255 26 0.000000
-9407.25097656 27554.30468750 -2.08145547 32 255 26 0.000000
-9406.76367188 27554.56054688 -2.08409452 32 255 26 0.000000
-9407.25097656 27554.33398438 -2.07836866 32 255 26 0.000000
-9405.32617188 27555.12695313 -2.08276129 32 255 26 0.000000
-9405.38085938 27555.02148438 -2.08554840 32 255 26 0.000000
-9406.14062500 27554.69921875 -2.09110832 32 255 26 0.000000
-9405.38867188 27555.05078125 -2.08627796 32 255 26 0.000000
-9405.24414063 27555.14843750 -2.08425832 32 255 26 0.000000
-9406.14062500 27554.75195313 -2.08659554 32 255 26 0.000000
-9405.70507813 27554.99804688 -2.07995582 32 255 26 0.000000
-9406.31738281 27554.76562500 -2.08962297 32 255 26 0.000000
-9405.23144531 27555.11718750 -2.08467817 32 255 26 0.000000
-9406.29687500 27554.69726563 -2.08326960 32 255 26 0.000000
-9405.38574219 27555.07617188 -2.08366942 32 255 26 0.000000
-9406.34765625 27554.70898438 -2.08237100 32 255 26 0.000000
-9405.86816406 27554.84179688 -2.08426332 32 255 26 0.000000
-9407.34570313 27554.31835938 -2.08229065 32 255 26 0.000000
-9405.39062500 27555.03515625 -2.08446574 32 255 26 0.000000
-9405.93847656 27554.90234375 -2.08965254 32 255 26 0.000000
-9406.75390625 27554.52734375 -2.08421636 32 255 26 0.000000
-9406.13183594 27554.72265625 -2.08631182 32 255 26 0.000000
-9406.15527344 27554.81250000 -2.08626175 32 255 26 0.000000
-9406.40527344 27554.66601563 -2.08389807 32 255 26 0.000000
-9405.45605469 27555.07421875 -2.09009051 32 255 26 0.000000
-9407.20214844 27554.35351563 -2.09035134 32 255 26 0.000000
-9405.73046875 27554.92968750 -2.08747506 32 255 26 0.000000
-9405.44531250 27555.09570313 -2.08524227 32 255 26 0.000000
-9405.72753906 27554.87695313 -2.09044600 32 255 26 0.000000
-9405.71875000 27554.89843750 -2.08565736 32 255 26 0.000000
-9405.30957031 27555.09179688 -2.08262873 32 255 26 0.000000
-9405.44433594 27555.04296875 -2.08836436 32 255 26 0.000000
-9405.83496094 27554.87695313 -2.08725095 32 255 26 0.000000
-9405.39257813 27555.06640625 -2.08121872 32 255 26 0.000000
-9407.20800781 27554.30859375 -2.09228897 32 255 26 0.000000
-9406.18554688 27554.75976563 -2.07920718 32 255 26 0.000000
-9406.41210938 27554.69531250 -2.08297467 32 255 26 0.000000
-9406.31640625 27554.73437500 -2.09176350 32 255 26 0.000000
-9405.44042969 27555.01562500 -2.08878016 32 255 26 0.000000
-9406.82812500 27554.54101563 -2.08293867 32 255 26 0.000000
-9406.30371094 27554.67773438 -2.09320045 32 255 26 0.000000
-9405.73242188 27554.98437500 -2.08388972 32 255 26 0.000000
-9406.19238281 27554.70703125 -2.08609462 32 255 26 0.000000
-9406.41308594 27554.72460938 -2.08103180 32 255 26 0.000000
-9406.81738281 27554.50976563 -2.08310699 32 255 26 0.000000
-9406.70605469 27554.50195313 -2.08696842 32 255 26 0.000000
-9405.77539063 27554.88671875 -2.08643389 32 255 26 0.000000
-9406.80761719 27554.47656250 -2.08347249 32 255 26 0.000000
-9405.33886719 27555.16015625 -2.08199906 32 255 26 0.000000
-9406.29785156 27554.64843750 -2.09398103 32 255 26 0.000000
-9406.20507813 27554.79492188 -2.08239603 32 255 26 0.000000
-9407.20410156 27554.38281250 -2.09188294 32 255 26 0.000000
-9405.38964844 27555.12890625 -2.08189821 32 255 26 0.000000
-9407.13085938 27554.35156250 -2.08897448 32 255 26 0.000000
-9405.87792969 27554.87695313 -2.08252120 32 255 26 0.000000
-9407.21484375 27554.26171875 -2.09411335 32 255 26 0.000000
-9405.38183594 27555.09960938 -2.08103681 32 255 26 0.000000
-9405.88378906 27554.91015625 -2.07993889 32 255 26 0.000000
-9407.13769531 27554.38281250 -2.08777070 32 255 26 0.000000
-9405.83007813 27554.84765625 -2.08784842 32 255 26 0.000000
-9406.74707031 27554.49804688 -2.08525300 32 255 26 0.000000
-9407.14843750 27554.41601563 -2.08744788 32 255 26 0.000000
-9407.20800781 27554.33398438 -2.09261298 32 255 26 0.000000
-9405.78808594 27554.94726563 -2.08627009 32 255 26 0.000000
-9406.69824219 27554.52148438 -2.09043574 32 255 26 0.000000
-9406.70996094 27554.53320313 -2.09015822 32 255 26 0.000000
-9406.19042969 27554.73437500 -2.08305025 32 255 26 0.000000
-9406.39843750 27554.66601563 -2.08173919 32 255 26 0.000000
-9406.80371094 27554.44921875 -2.08522224 32 255 26 0.000000
-9406.34179688 27554.67968750 -2.08324957 32 255 26 0.000000
-9405.68261719 27554.92968750 -2.08255315 32 255 26 0.000000
-9406.70996094 27554.56054688 -2.09198213 32 255 26 0.000000
-9406.28710938 27554.66406250 -2.08490038 32 255 26 0.000000
-9407.10156250 27554.40039063 -2.08079410 32 255 26 0.000000
-9407.19433594 27554.40039063 -2.08830094 32 255 26 0.000000
-9406.14257813 27554.78125000 -2.08480096 32 255 26 0.000000
-9405.67285156 27554.91406250 -2.08865190 32 255 26 0.000000
-9405.93750000 27554.87500000 -2.09139991 32 255 26 0.000000
-9405.67773438 27554.97070313 -2.08651638 32 255 26 0.000000
-9406.31347656 27554.70898438 -2.09338593 32 255 26 0.000000
-9405.69238281 27554.96289063 -2.08087158 32 255 26 0.000000
-9405.30078125 27555.05859375 -2.08414841 32 255 26 0.000000
-9406.33593750 27554.65039063 -2.08409023 32 255 26 0.000000
-9406.38378906 27554.62890625 -2.08289337 32 255 26 0.000000
-9403.50488281 27555.82421875 -2.09280682 32 255 26 0.000000
-9403.50683594 27555.85156250 -2.09101367 32 255 26 0.000000
-9404.54492188 27555.40820313 -2.09269857 32 255 26 0.000000
-9405.02343750 27555.28515625 -2.08540916 32 255 26 0.000000
-9404.43359375 27555.44921875 -2.08862495 32 255 26 0.000000
-9404.79394531 27555.25781250 -2.09659648 32 255 26 0.000000
-9404.90625000 27555.30273438 -2.08547425 32 255 26 0.000000
-9403.45214844 27555.86914063 -2.09284377 32 255 26 0.000000
-9404.79394531 27555.36132813 -2.09266281 32 255 26 0.000000
-9403.92871094 27555.62500000 -2.08752418 32 255 26 0.000000
-9403.95898438 27555.66992188 -2.09358263 32 255 26 0.000000
-9404.12109375 27555.63476563 -2.09111857 32 255 26 0.000000
-9403.47949219 27555.77734375 -2.10222387 32 255 26 0.000000
-9405.32617188 27555.12695313 -2.08276129 32 255 26 0.000000
-9404.54199219 27555.37890625 -2.09481883 32 255 26 0.000000
-9405.38085938 27555.02148438 -2.08554840 32 255 26 0.000000
-9405.38867188 27555.05078125 -2.08627796 32 255 26 0.000000
-9405.24414063 27555.14843750 -2.08425832 32 255 26 0.000000
-9404.89453125 27555.26953125 -2.08599472 32 255 26 0.000000
-9405.23144531 27555.11718750 -2.08467817 32 255 26 0.000000
-9405.38574219 27555.07617188 -2.08366942 32 255 26 0.000000
-9404.79687500 27555.28515625 -2.09653950 32 255 26 0.000000
-9403.52929688 27555.81054688 -2.08534646 32 255 26 0.000000
-9403.60546875 27555.76171875 -2.08932137 32 255 26 0.000000
-9405.39062500 27555.03515625 -2.08446574 32 255 26 0.000000
-9404.52148438 27555.41601563 -2.08326054 32 255 26 0.000000
-9404.30078125 27555.49023438 -2.09185672 32 255 26 0.000000
-9403.49902344 27555.79492188 -2.09354401 32 255 26 0.000000
-9405.45605469 27555.07421875 -2.09009051 32 255 26 0.000000
-9403.96777344 27555.65234375 -2.09684491 32 255 26 0.000000
-9403.39746094 27555.91015625 -2.09111166 32 255 26 0.000000
-9404.42578125 27555.41796875 -2.08978748 32 255 26 0.000000
-9404.50976563 27555.43359375 -2.09653854 32 255 26 0.000000
-9405.44531250 27555.09570313 -2.08524227 32 255 26 0.000000
-9404.82812500 27555.32226563 -2.08602977 32 255 26 0.000000
-9403.99511719 27555.63671875 -2.08421779 32 255 26 0.000000
-9404.79199219 27555.33398438 -2.09281588 32 255 26 0.000000
-9403.98925781 27555.60742188 -2.08521438 32 255 26 0.000000
-9403.55566406 27555.77929688 -2.09291339 32 255 26 0.000000
-9405.30957031 27555.09179688 -2.08262873 32 255 26 0.000000
-9403.89062500 27555.62500000 -2.09690762 32 255 26 0.000000
-9404.34667969 27555.46484375 -2.08536434 32 255 26 0.000000
-9405.44433594 27555.04296875 -2.08836436 32 255 26 0.000000
-9404.79687500 27555.30859375 -2.09551668 32 255 26 0.000000
-9405.39257813 27555.06640625 -2.08121872 32 255 26 0.000000
-9403.90527344 27555.71289063 -2.09336352 32 255 26 0.000000
-9403.96191406 27555.69726563 -2.09507155 32 255 26 0.000000
-9405.48339844 27555.00000000 -2.08535051 32 255 26 0.000000
-9404.81250000 27555.28906250 -2.08560205 32 255 26 0.000000
-9405.44042969 27555.01562500 -2.08878016 32 255 26 0.000000
-9403.56640625 27555.83984375 -2.09132385 32 255 26 0.000000
-9403.61425781 27555.81835938 -2.08665872 32 255 26 0.000000
-9403.55761719 27555.80859375 -2.09112024 32 255 26 0.000000
-9404.44824219 27555.48242188 -2.08952403 32 255 26 0.000000
-9405.00000000 27555.21875000 -2.08654928 32 255 26 0.000000
-9405.33886719 27555.16015625 -2.08199906 32 255 26 0.000000
-9403.44042969 27555.83593750 -2.09175777 32 255 26 0.000000
-9405.38964844 27555.12890625 -2.08189821 32 255 26 0.000000
-9403.47265625 27555.79687500 -2.10018659 32 255 26 0.000000
-9403.89550781 27555.68164063 -2.09310532 32 255 26 0.000000
-9405.49121094 27555.02929688 -2.08598876 32 255 26 0.000000
-9403.94042969 27555.68554688 -2.08533764 32 255 26 0.000000
-9403.62207031 27555.84960938 -2.08677530 32 255 26 0.000000
-9404.36425781 27555.52734375 -2.08396125 32 255 26 0.000000
-9403.45214844 27555.93750000 -2.09789681 32 255 26 0.000000
-9404.50292969 27555.37695313 -2.09521127 32 255 26 0.000000
-9404.81250000 27555.25976563 -2.08871484 32 255 26 0.000000
-9405.38183594 27555.09960938 -2.08103681 32 255 26 0.000000
-9404.29785156 27555.46093750 -2.09388709 32 255 26 0.000000
-9403.97363281 27555.60546875 -2.09874058 32 255 26 0.000000
-9404.49511719 27555.39843750 -2.09168196 32 255 26 0.000000
-9405.01855469 27555.25390625 -2.08775401 32 255 26 0.000000
-9403.46875000 27555.81835938 -2.09944224 32 255 26 0.000000
-9404.83496094 27555.35546875 -2.08462930 32 255 26 0.000000
-9404.45507813 27555.51367188 -2.08803129 32 255 26 0.000000
-9403.43847656 27555.80859375 -2.09324288 32 255 26 0.000000
-9403.95410156 27555.71875000 -2.08625460 32 255 26 0.000000
-9403.61523438 27555.79296875 -2.08952093 32 255 26 0.000000
-9403.50781250 27555.87890625 -2.08917975 32 255 26 0.000000
-9404.36132813 27555.49804688 -2.08608985 32 255 26 0.000000
-9403.50976563 27555.90820313 -2.08731747 32 255 26 0.000000
-9403.45312500 27555.88476563 -2.09573841 32 255 26 0.000000
-9404.55664063 27555.43945313 -2.09263134 32 255 26 0.000000
-9403.87500000 27555.64648438 -2.09009218 32 255 26 0.000000
-9403.93457031 27555.65625000 -2.08632898 32 255 26 0.000000
-9404.00488281 27555.66992188 -2.08415198 32 255 26 0.000000
-9403.95898438 27555.72070313 -2.09402323 32 255 26 0.000000
-9404.55957031 27555.47070313 -2.09019041 32 255 26 0.000000
-9403.45800781 27555.86132813 -2.09656286 32 255 26 0.000000
-9403.45410156 27555.89648438 -2.09104252 32 255 26 0.000000
-9403.50781250 27555.77343750 -2.08493090 32 255 26 0.000000
-9403.54296875 27555.84765625 -2.08414340 32 255 26 0.000000
-9403.44921875 27555.90625000 -2.09488606 32 255 26 0.000000
-9403.97363281 27555.63085938 -2.09907055 32 255 26 0.000000
-9405.30078125 27555.05859375 -2.08414841 32 255 26 0.000000
-9403.91113281 27555.74414063 -2.09210777 32 255 26 0.000000
-9403.46289063 27555.83789063 -2.09735632 32 255 26 0.000000
-9404.11523438 27555.60351563 -2.09243679 32 255 26 0.000000
-9404.31152344 27555.52148438 -2.09167767 32 255 26 0.000000
-9405.00292969 27555.18945313 -2.09082460 32 255 26 0.000000
-9403.57910156 27555.87109375 -2.09249496 32 255 26 0.000000
-9403.08984375 27555.99609375 -2.09178853 32 255 26 0.000000
-9402.91015625 27556.08593750 -2.09160638 32 255 26 0.000000
-9402.44726563 27556.27539063 -2.08965039 32 255 26 0.000000
-9401.61914063 27556.58593750 -2.09792447 32 255 26 0.000000
-9401.98144531 27556.43164063 -2.09616709 32 255 26 0.000000
-9402.20507813 27556.33398438 -2.09898734 32 255 26 0.000000
-9403.50488281 27555.82421875 -2.09280682 32 255 26 0.000000
-9403.50683594 27555.85156250 -2.09101367 32 255 26 0.000000
-9403.45214844 27555.86914063 -2.09284377 32 255 26 0.000000
-9401.65429688 27556.54687500 -2.08613873 32 255 26 0.000000
-9401.56738281 27556.66406250 -2.09697652 32 255 26 0.000000
-9402.51171875 27556.31054688 -2.09628773 32 255 26 0.000000
-9401.65527344 27556.57226563 -2.08626580 32 255 26 0.000000
-9403.12402344 27555.98242188 -2.08426976 32 255 26 0.000000
-9402.94726563 27556.03710938 -2.08644938 32 255 26 0.000000
-9402.67480469 27556.14062500 -2.09040761 32 255 26 0.000000
-9403.47949219 27555.77734375 -2.10222387 32 255 26 0.000000
-9402.95703125 27556.07031250 -2.08469176 32 255 26 0.000000
-9401.68945313 27556.62500000 -2.09236050 32 255 26 0.000000
-9402.21093750 27556.36328125 -2.10003471 32 255 26 0.000000
-9402.25195313 27556.34179688 -2.08698392 32 255 26 0.000000
-9402.99902344 27556.10742188 -2.09149384 32 255 26 0.000000
-9403.09375000 27556.02343750 -2.09120393 32 255 26 0.000000
-9402.19921875 27556.37109375 -2.09313226 32 255 26 0.000000
-9403.13378906 27556.01562500 -2.08242130 32 255 26 0.000000
-9402.20898438 27556.41210938 -2.09735823 32 255 26 0.000000
-9402.90332031 27556.02734375 -2.09278965 32 255 26 0.000000
-9403.52929688 27555.81054688 -2.08534646 32 255 26 0.000000
-9402.68652344 27556.25195313 -2.05534410 32 255 26 0.000000
-9403.60546875 27555.76171875 -2.08932137 32 255 26 0.000000
-9402.44628906 27556.21289063 -2.09647226 32 255 26 0.000000
-9403.49902344 27555.79492188 -2.09354401 32 255 26 0.000000
-9402.50683594 27556.22851563 -2.09863305 32 255 26 0.000000
-9402.68554688 27556.26562500 -2.07850623 32 255 26 0.000000
-9403.39746094 27555.91015625 -2.09111166 32 255 26 0.000000
-9401.66503906 27556.53125000 -2.09511948 32 255 26 0.000000
-9403.09863281 27556.05273438 -2.09058189 32 255 26 0.000000
-9403.04589844 27556.00976563 -2.08829522 32 255 26 0.000000
-9401.55859375 27556.60546875 -2.10029459 32 255 26 0.000000
-9402.58593750 27556.19140625 -2.08639431 32 255 26 0.000000
-9403.55566406 27555.77929688 -2.09291339 32 255 26 0.000000
-9402.19628906 27556.30273438 -2.09672570 32 255 26 0.000000
-9401.68261719 27556.59375000 -2.09363818 32 255 26 0.000000
-9402.68261719 27556.29687500 -2.07418227 32 255 26 0.000000
-9402.60156250 27556.22851563 -2.08622456 32 255 26 0.000000
-9401.61816406 27556.61328125 -2.09482241 32 255 26 0.000000
-9401.65722656 27556.65234375 -2.08643365 32 255 26 0.000000
-9402.99804688 27556.08007813 -2.09315515 32 255 26 0.000000
-9402.46679688 27556.31054688 -2.09067154 32 255 26 0.000000
-9402.10937500 27556.41601563 -2.08717203 32 255 26 0.000000
-9403.13476563 27555.95312500 -2.09033179 32 255 26 0.000000
-9402.20703125 27556.38476563 -2.09779191 32 255 26 0.000000
-9401.65722656 27556.52148438 -2.08744049 32 255 26 0.000000
-9402.69140625 27556.17578125 -2.09046650 32 255 26 0.000000
-9403.00097656 27556.05468750 -2.09586263 32 255 26 0.000000
-9403.08593750 27555.96679688 -2.09233904 32 255 26 0.000000
-9401.62890625 27556.64453125 -2.09453583 32 255 26 0.000000
-9401.75097656 27556.54687500 -2.09591341 32 255 26 0.000000
-9403.56640625 27555.83984375 -2.09132385 32 255 26 0.000000
-9403.14062500 27555.92968750 -2.09407806 32 255 26 0.000000
-9403.61425781 27555.81835938 -2.08665872 32 255 26 0.000000
-9403.55761719 27555.80859375 -2.09112024 32 255 26 0.000000
-9401.76562500 27556.58203125 -2.09649968 32 255 26 0.000000
-9402.49609375 27556.19726563 -2.09636641 32 255 26 0.000000
-9401.97265625 27556.44140625 -2.08819222 32 255 26 0.000000
-9401.74414063 27556.51757813 -2.09715819 32 255 26 0.000000
-9403.44042969 27555.83593750 -2.09175777 32 255 26 0.000000
-9401.56542969 27556.63476563 -2.09913564 32 255 26 0.000000
-9402.00292969 27556.49804688 -2.09524775 32 255 26 0.000000
-9401.68359375 27556.56640625 -2.09676290 32 255 26 0.000000
-9403.47265625 27555.79687500 -2.10018659 32 255 26 0.000000
-9402.10644531 27556.38476563 -2.08975124 32 255 26 0.000000
-9403.62207031 27555.84960938 -2.08677530 32 255 26 0.000000
-9403.45214844 27555.93750000 -2.09789681 32 255 26 0.000000
-9402.50292969 27556.25195313 -2.09583807 32 255 26 0.000000
-9403.14257813 27555.98242188 -2.09080863 32 255 26 0.000000
-9401.77539063 27556.61328125 -2.09610367 32 255 26 0.000000
-9403.46875000 27555.81835938 -2.09944224 32 255 26 0.000000
-9403.05859375 27556.04687500 -2.08705235 32 255 26 0.000000
-9402.18847656 27556.33789063 -2.09367824 32 255 26 0.000000
-9403.43847656 27555.80859375 -2.09324288 32 255 26 0.000000
-9403.15527344 27556.04296875 -2.09058022 32 255 26 0.000000
-9402.20703125 27556.40234375 -2.09164739 32 255 26 0.000000
-9403.15039063 27556.05273438 -2.08214664 32 255 26 0.000000
-9401.65917969 27556.62890625 -2.08762693 32 255 26 0.000000
-9402.21093750 27556.43945313 -2.09713173 32 255 26 0.000000
-9402.43945313 27556.24218750 -2.09120011 32 255 26 0.000000
-9401.66210938 27556.60351563 -2.08878994 32 255 26 0.000000
-9402.26367188 27556.37500000 -2.08635497 32 255 26 0.000000
-9402.61718750 27556.26171875 -2.08625627 32 255 26 0.000000
-9403.61523438 27555.79296875 -2.08952093 32 255 26 0.000000
-9403.50781250 27555.87890625 -2.08917975 32 255 26 0.000000
-9403.50976563 27555.90820313 -2.08731747 32 255 26 0.000000
-9402.99707031 27556.02734375 -2.09637952 32 255 26 0.000000
-9403.45312500 27555.88476563 -2.09573841 32 255 26 0.000000
-9402.97753906 27556.10546875 -2.08562350 32 255 26 0.000000
-9403.15136719 27556.01367188 -2.09124207 32 255 26 0.000000
-9402.90234375 27556.05468750 -2.09100890 32 255 26 0.000000
-9403.45800781 27555.86132813 -2.09656286 32 255 26 0.000000
-9403.45410156 27555.89648438 -2.09104252 32 255 26 0.000000
-9403.50781250 27555.77343750 -2.08493090 32 255 26 0.000000
-9403.54296875 27555.84765625 -2.08414340 32 255 26 0.000000
-9403.44921875 27555.90625000 -2.09488606 32 255 26 0.000000
-9401.66406250 27556.68164063 -2.08907795 32 255 26 0.000000
-9402.99609375 27556.00000000 -2.09794855 32 255 26 0.000000
-9403.46289063 27555.83789063 -2.09735632 32 255 26 0.000000
-9402.50585938 27556.28125000 -2.09551835 32 255 26 0.000000
-9403.57910156 27555.87109375 -2.09249496 32 255 26 0.000000
-9399.75097656 27557.38867188 -2.10453844 32 255 26 0.000000
-9399.67578125 27557.36132813 -2.11534023 32 255 26 0.000000
-9399.94628906 27557.31835938 -2.10706735 32 255 26 0.000000
-9399.69726563 27557.44726563 -2.10744166 32 255 26 0.000000
-9399.72753906 27557.32226563 -2.10589314 32 255 26 0.000000
-9399.73242188 27557.35351563 -2.10346460 32 255 26 0.000000
-9399.81835938 27557.33398438 -2.10463977 32 255 26 0.000000
-9399.68359375 27557.41796875 -2.11600447 32 255 26 0.000000
-9399.82617188 27557.36718750 -2.10300922 32 255 26 0.000000
-9399.93847656 27557.28710938 -2.10847425 32 255 26 0.000000
-9399.68652344 27557.41406250 -2.10814357 32 255 26 0.000000
-9399.76953125 27557.42382813 -2.10555673 32 255 26 0.000000
-9399.66699219 27557.34960938 -2.11030865 32 255 26 0.000000
-9399.67871094 27557.38281250 -2.10969448 32 255 26 0.000000
-9399.80957031 27557.30273438 -2.10623074 32 255 26 0.000000
-9399.67773438 27557.38867188 -2.11511111 32 255 26 0.000000
-9399.66992188 27557.33203125 -2.11460662 32 255 26 0.000000
-9401.61914063 27556.58593750 -2.09792447 32 255 26 0.000000
-9401.27539063 27556.69921875 -2.10138583 32 255 26 0.000000
-9400.16308594 27557.17968750 -2.10503006 32 255 26 0.000000
-9400.81250000 27556.93945313 -2.10788965 32 255 26 0.000000
-9401.13574219 27556.81054688 -2.10751891 32 255 26 0.000000
-9401.12695313 27556.88085938 -2.10589337 32 255 26 0.000000
-9401.65429688 27556.54687500 -2.08613873 32 255 26 0.000000
-9400.61132813 27557.00000000 -2.10574317 32 255 26 0.000000
-9400.72167969 27556.97460938 -2.10491252 32 255 26 0.000000
-9401.56738281 27556.66406250 -2.09697652 32 255 26 0.000000
-9401.14550781 27556.79101563 -2.11100054 32 255 26 0.000000
-9400.38183594 27557.08007813 -2.10931778 32 255 26 0.000000
-9401.65527344 27556.57226563 -2.08626580 32 255 26 0.000000
-9400.88183594 27556.97851563 -2.11003089 32 255 26 0.000000
-9401.17480469 27556.76562500 -2.10598135 32 255 26 0.000000
-9401.68945313 27556.62500000 -2.09236050 32 255 26 0.000000
-9400.80664063 27556.88281250 -2.11049628 32 255 26 0.000000
-9400.27343750 27557.17773438 -2.10292387 32 255 26 0.000000
-9400.33691406 27557.16406250 -2.10011840 32 255 26 0.000000
-9400.27050781 27557.14843750 -2.10350561 32 255 26 0.000000
-9400.71679688 27556.94531250 -2.10568643 32 255 26 0.000000
-9401.27050781 27556.72460938 -2.09741092 32 255 26 0.000000
-9400.23828125 27557.15429688 -2.10178900 32 255 26 0.000000
-9401.18554688 27556.82617188 -2.10398006 32 255 26 0.000000
-9400.59960938 27556.98632813 -2.09900427 32 255 26 0.000000
-9400.82226563 27557.00195313 -2.09634972 32 255 26 0.000000
-9400.33691406 27557.14648438 -2.10869765 32 255 26 0.000000
-9401.66503906 27556.53125000 -2.09511948 32 255 26 0.000000
-9400.61425781 27557.05273438 -2.09432507 32 255 26 0.000000
-9400.33203125 27557.11914063 -2.10904694 32 255 26 0.000000
-9400.82617188 27557.00000000 -2.10720921 32 255 26 0.000000
-9401.55859375 27556.60546875 -2.10029459 32 255 26 0.000000
-9400.27050781 27557.22460938 -2.10151458 32 255 26 0.000000
-9400.66113281 27556.98632813 -2.10425901 32 255 26 0.000000
-9401.13574219 27556.83398438 -2.10809898 32 255 26 0.000000
-9400.71289063 27556.91601563 -2.10642409 32 255 26 0.000000
-9401.18066406 27556.79492188 -2.10500002 32 255 26 0.000000
-9401.17578125 27556.73828125 -2.10893154 32 255 26 0.000000
-9400.37597656 27557.10351563 -2.10547590 32 255 26 0.000000
-9401.68261719 27556.59375000 -2.09363818 32 255 26 0.000000
-9401.61816406 27556.61328125 -2.09482241 32 255 26 0.000000
-9401.65722656 27556.65234375 -2.08643365 32 255 26 0.000000
-9400.25390625 27557.18945313 -2.10167789 32 255 26 0.000000
-9401.27832031 27556.78320313 -2.09430099 32 255 26 0.000000
-9401.29296875 27556.71484375 -2.09331083 32 255 26 0.000000
-9400.72363281 27557.00195313 -2.10306072 32 255 26 0.000000
-9400.62109375 27557.05859375 -2.10424304 32 255 26 0.000000
-9400.64746094 27556.96093750 -2.10858178 32 255 26 0.000000
-9401.65722656 27556.52148438 -2.08744049 32 255 26 0.000000
-9400.27343750 27557.12500000 -2.10599637 32 255 26 0.000000
-9400.65527344 27556.94140625 -2.11060810 32 255 26 0.000000
-9401.62890625 27556.64453125 -2.09453583 32 255 26 0.000000
-9400.61621094 27557.02929688 -2.10501218 32 255 26 0.000000
-9401.75097656 27556.54687500 -2.09591341 32 255 26 0.000000
-9401.76562500 27556.58203125 -2.09649968 32 255 26 0.000000
-9401.74414063 27556.51757813 -2.09715819 32 255 26 0.000000
-9401.56542969 27556.63476563 -2.09913564 32 255 26 0.000000
-9400.32714844 27557.16796875 -2.10373449 32 255 26 0.000000
-9401.68359375 27556.56640625 -2.09676290 32 255 26 0.000000
-9400.23632813 27557.12304688 -2.10523319 32 255 26 0.000000
-9400.60351563 27556.97070313 -2.10537505 32 255 26 0.000000
-9400.86132813 27556.89843750 -2.09206772 32 255 26 0.000000
-9400.81152344 27556.91210938 -2.10972977 32 255 26 0.000000
-9400.81445313 27556.96679688 -2.10601735 32 255 26 0.000000
-9400.65625000 27556.95703125 -2.10498762 32 255 26 0.000000
-9400.79687500 27556.96289063 -2.09548950 32 255 26 0.000000
-9400.32812500 27557.08984375 -2.10960579 32 255 26 0.000000
-9400.61230469 27557.02148438 -2.09790230 32 255 26 0.000000
-9401.07031250 27556.85351563 -2.09547663 32 255 26 0.000000
-9401.77539063 27556.61328125 -2.09610367 32 255 26 0.000000
-9400.66308594 27557.01171875 -2.10244751 32 255 26 0.000000
-9401.14355469 27556.76367188 -2.10930824 32 255 26 0.000000
-9400.87695313 27556.94335938 -2.10597897 32 255 26 0.000000
-9401.06445313 27556.82421875 -2.09645367 32 255 26 0.000000
-9401.65917969 27556.62890625 -2.08762693 32 255 26 0.000000
-9400.61328125 27556.94726563 -2.11028314 32 255 26 0.000000
-9401.19531250 27556.85742188 -2.10391736 32 255 26 0.000000
-9401.66210938 27556.60351563 -2.08878994 32 255 26 0.000000
-9400.78320313 27556.92968750 -2.09644127 32 255 26 0.000000
-9400.72460938 27557.02929688 -2.10142636 32 255 26 0.000000
-9401.27636719 27556.75390625 -2.09636593 32 255 26 0.000000
-9400.27246094 27557.09765625 -2.10760522 32 255 26 0.000000
-9400.30371094 27557.09375000 -2.10041261 32 255 26 0.000000
-9400.28027344 27557.20898438 -2.10314202 32 255 26 0.000000
-9401.14648438 27556.74023438 -2.11016107 32 255 26 0.000000
-9401.13085938 27556.85937500 -2.10689044 32 255 26 0.000000
-9401.66406250 27556.68164063 -2.08907795 32 255 26 0.000000
-9401.06250000 27556.79687500 -2.09840083 32 255 26 0.000000
-9398.86230469 27557.80468750 -2.12443876 32 255 26 0.000000
-9397.83593750 27558.14843750 -2.11739612 32 255 26 0.000000
-9399.30078125 27557.60156250 -2.10644746 32 255 26 0.000000
-9398.74609375 27557.71484375 -2.11721706 32 255 26 0.000000
-9398.75488281 27557.77343750 -2.11404204 32 255 26 0.000000
-9398.82421875 27557.73242188 -2.11774254 32 255 26 0.000000
-9398.86621094 27557.77929688 -2.12561846 32 255 26 0.000000
-9399.75097656 27557.38867188 -2.10453844 32 255 26 0.000000
-9399.67578125 27557.36132813 -2.11534023 32 255 26 0.000000
-9397.83789063 27558.12500000 -2.12023783 32 255 26 0.000000
-9398.02734375 27558.08984375 -2.11871386 32 255 26 0.000000
-9399.67480469 27557.46484375 -2.11074662 32 255 26 0.000000
-9397.92187500 27558.06054688 -2.12413311 32 255 26 0.000000
-9399.69726563 27557.44726563 -2.10744166 32 255 26 0.000000
-9398.34179688 27558.01562500 -2.12353134 32 255 26 0.000000
-9397.93652344 27558.15039063 -2.12281227 32 255 26 0.000000
-9399.35546875 27557.51757813 -2.10774112 32 255 26 0.000000
-9398.35156250 27557.96875000 -2.12551785 32 255 26 0.000000
-9399.72753906 27557.32226563 -2.10589314 32 255 26 0.000000
-9398.38476563 27557.95507813 -2.11692405 32 255 26 0.000000
-9398.36230469 27557.86328125 -2.11765695 32 255 26 0.000000
-9399.15136719 27557.57812500 -2.11112714 32 255 26 0.000000
-9399.22363281 27557.53125000 -2.11433840 32 255 26 0.000000
-9398.83593750 27557.79296875 -2.11537600 32 255 26 0.000000
-9397.79394531 27558.11328125 -2.12557006 32 255 26 0.000000
-9399.73242188 27557.35351563 -2.10346460 32 255 26 0.000000
-9399.81835938 27557.33398438 -2.10463977 32 255 26 0.000000
-9398.30664063 27557.90625000 -2.11581302 32 255 26 0.000000
-9397.91601563 27558.11328125 -2.11820722 32 255 26 0.000000
-9398.93261719 27557.66015625 -2.11376858 32 255 26 0.000000
-9399.68359375 27557.41796875 -2.11600447 32 255 26 0.000000
-9397.79980469 27558.22265625 -2.11963010 32 255 26 0.000000
